-20 -8 -6
-16 -4 -5
-4 -6 -3
8 -2 0
13 12 4
10 16 6
1 3 5
-6 -8 1
-9 -5 -3
-4 -2 -5
6 -8 -3
6 -16 -1
2 -10 2
-5 -7 2
-9 -16 1
-5 -16 3
0 -3 4
6 5 4
12 0 2
12 -2 -1
11 8 -1
6 13 1
8 6 6
9 3 8
10 12 11
14 19 13
12 11 12
8 5 12
6 10 8
5 11 5
10 4 4
12 2 5
9 11 6
5 15 3
3 8 0
6 7 0
7 15 4
2 17 7
-2 6 7
-6 2 3
-4 13 1
3 19 0
6 9 3
2 -3 3
0 3 3
3 13 3
13 15 5
18 15 9
11 19 13
6 19 14
7 14 17
13 13 19
13 18 17
7 13 12
-1 -2 5
-1 -6 1
7 9 1
17 22 4
18 16 4
11 7 3
4 12 4
3 15 4
10 8 7
13 3 9
11 8 8
6 10 5
3 0 0
2 -6 -3
6 4 -3
9 11 -2
13 7 1
14 5 3
14 14 5
15 18 8
17 10 10
16 6 12
10 10 12
7 8 12
5 -10 12
5 -25 8
7 -22 4
10 -16 0
12 -18 -1
13 -18 3
8 -8 7
5 2 9
8 5 10
8 12 11
9 27 15
7 31 17
4 17 16
3 8 11
2 15 7
1 22 5
-4 16 7
-5 16 10
-3 29 14
3 36 15
10 25 12
8 14 8
0 17 2
-6 18 -5
-11 9 -12
-14 1 -18
-17 3 -21
-18 7 -18
-15 4 -11
-11 4 -5
-11 12 -5
-14 10 -12
-15 -4 -18
-13 -9 -17
-9 3 -9
-3 13 -2
-1 10 -1
-1 10 -3
-4 16 -8
-5 16 -10
-6 -1 -13
-12 -15 -18
-21 -13 -23
-28 -9 -26
-28 -17 -27
-25 -22 -24
-22 -15 -22
-19 -11 -21
-16 -18 -23
-13 -21 -24
-11 -13 -22
-12 -10 -19
-14 -19 -15
-24 -24 -16
-31 -15 -19
-34 -13 -22
-32 -27 -24
-27 -38 -19
-19 -31 -12
-9 -20 -5
-5 -20 -2
-8 -17 -2
-16 -6 -5
-21 -1 -9
-16 -7 -10
-6 -6 -10
5 11 -7
15 26 -2
21 22 1
24 17 4
22 21 6
19 26 7
14 20 7
13 21 8
16 31 8
20 32 5
23 19 0
22 12 -3
15 17 -5
10 20 -5
10 9 -4
15 3 -1
21 10 2
25 15 3
24 3 1
13 -9 -3
2 -6 -7
-5 -3 -9
-3 -7 -6
3 -4 0
4 6 5
1 8 5
-4 -6 2
-7 -13 0
-4 -2 1
3 9 3
10 4 8
7 -6 10
-1 -3 8
-4 0 4
-2 -8 -1
0 -12 -2
2 -1 1
0 5 5
0 -2 7
1 -5 7
6 4 5
11 9 7
15 0 10
11 -5 14
8 5 15
8 14 16
12 11 17
16 5 20
13 10 24
7 9 23
1 -4 19
2 -6 16
9 6 14
18 13 13
24 6 14
20 1 14
10 12 18
0 16 19
-1 9 22
3 2 21
9 6 18
11 7 14
8 -7 9
0 -14 8
-2 -5 6
-2 1 6
1 -7 3
2 -14 1
1 -6 1
2 2 3
7 -2 6
14 -2 8
13 6 7
9 7 5
4 -5 3
-4 -14 0
-9 -8 -2
-13 -4 -7
-12 -13 -12
-8 -22 -15
-8 -24 -14
-9 -31 -11
-9 -46 -9
-12 -51 -9
-14 -37 -11
-15 -30 -13
-15 -38 -14
-18 -44 -12
-19 -32 -12
-16 -21 -12
-9 -23 -12
-5 -25 -10
-6 -14 -4
-9 -6 2
-10 -12 5
-12 -16 5
-12 -10 -1
-8 -4 -7
2 -7 -10
9 -6 -9
12 3 -4
9 3 0
3 -14 1
0 -25 1
0 -17 -2
6 -7 -4
6 -13 -5
1 -19 -6
-7 -11 -6
-12 -6 -8
-11 -10 -9
-11 -11 -9
-14 -2 -11
-17 4 -11
-14 -2 -12
-9 -3 -9
-2 10 -3
0 15 0
3 6 0
6 0 -2
8 8 -2
14 16 2
16 10 8
13 7 13
10 17 13
9 22 8
8 9 1
4 -7 -4
-1 -10 -5
-4 -12 -4
-2 -20 1
3 -19 6
4 -8 8
4 0 9
9 -7 10
13 -10 12
21 6 15
24 18 17
19 10 15
5 -1 10
-5 1 2
-9 2 -5
-2 -2 -9
8 -2 -9
12 9 -6
12 14 -3
9 5 -1
6 0 4
3 8 7
2 14 8
3 6 6
4 3 3
6 14 3
9 21 5
11 13 8
11 9 10
4 15 7
-1 19 5
-2 9 4
-2 1 6
4 9 8
12 14 9
14 5 7
11 -2 1
2 2 -2
-2 5 -6
-3 -3 -7
0 -7 -8
2 0 -8
5 0 -6
11 -12 -1
12 -21 3
8 -13 1
2 -5 -10
-4 -11 -26
-7 -17 -38
-7 -12 -40
-4 -9 -35
-3 -16 -28
-4 -19 -23
-4 -8 -22
-3 0 -21
0 -8 -20
3 -14 -20
4 -8 -19
6 -3 -18
9 -10 -16
10 -12 -12
8 -1 -9
5 6 -7
4 -3 -6
1 -12 -5
2 -6 -4
-2 -4 -6
-5 -14 -9
-7 -20 -9
-9 -12 -9
-7 -4 -7
-4 -7 -4
-5 -12 0
-9 -7 2
-14 -6 2
-18 -17 0
-19 -23 -2
-15 -16 -4
-6 -9 -6
2 -18 -8
3 -21 -8
-1 -9 -6
-9 -2 -3
-11 -12 -3
-13 -23 -6
-16 -21 -12
-20 -18 -17
-22 -25 -18
-21 -26 -14
-18 -13 -10
-15 -6 -10
-12 -15 -11
-12 -21 -12
-15 -13 -13
-15 -5 -13
-15 -11 -13
-17 -18 -12
-21 -10 -9
-25 -9 -8
-24 -18 -7
-19 -21 -7
-12 -9 -8
-5 1 -7
-3 -9 -7
-7 -19 -6
-12 -16 -6
-14 -9 -4
-11 -9 0
-6 -3 5
-4 12 9
-3 18 9
-4 6 7
-3 -1 7
1 7 7
2 13 8
4 1 7
-1 -10 4
-6 -5 1
-7 0 0
-2 -3 3
-1 -8 3
-4 0 -1
-11 2 -7
-13 -7 -11
-10 -9 -7
-2 5 2
5 17 9
11 12 11
9 4 8
-1 6 3
-12 3 -1
-15 -8 -3
-12 -11 -5
-6 0 -8
3 10 -10
5 -3 -10
-3 -19 -9
-11 -22 -9
-15 -22 -11
-9 -27 -12
-1 -25 -10
1 -9 -6
-4 -2 -5
-9 -10 -4
-18 -18 -6
-21 -10 -7
-17 -2 -7
-11 -6 -6
-8 -9 -4
-6 1 -3
-4 9 -2
-4 1 -1
-9 -8 0
-14 -4 0
-16 2 3
-14 -4 3
-10 -6 3
-5 5 1
1 14 1
0 6 2
-3 -1 6
-6 5 7
-8 9 5
-4 -1 3
-2 -7 2
-4 0 2
-6 6 0
-6 0 -1
-4 -3 -2
-1 9 -1
-1 14 1
-3 5 2
-7 -4 0
-8 2 -2
-9 5 -2
-5 -5 -1
-4 -13 -2
-4 -4 -3
-6 4 -5
-8 -2 -4
-9 -6 1
-7 4 5
2 14 7
13 12 6
16 7 3
10 11 1
3 10 0
-5 -6 -3
-5 -14 -6
-8 -8 -11
-6 0 -14
-6 -9 -15
-12 -19 -13
-22 -18 -13
-30 -15 -16
-28 -20 -20
-21 -20 -21
-9 -8 -20
-2 -3 -19
-5 -19 -20
-14 -33 -21
-21 -29 -23
-26 -21 -23
-19 -22 -21
-19 -25 -21
-21 -18 -24
-23 -13 -28
-30 -23 -28
-32 -29 -23
-32 -22 -19
-25 -15 -18
-14 -19 -20
-5 -20 -21
-4 -7 -18
-10 1 -14
-15 -7 -9
-17 -12 -5
-12 -3 -4
-4 5 -3
1 -5 -6
-1 -16 -8
-7 -11 -8
-11 -5 -9
-9 -9 -6
-3 -13 -7
0 -8 -7
2 -3 -7
3 -7 -5
2 -6 0
0 5 2
0 10 2
-1 -4 -2
-5 -17 -7
-7 -9 -7
-4 3 -4
4 1 -1
10 -1 1
10 6 -2
7 9 -4
5 1 -3
5 -3 1
6 8 5
6 18 6
5 12 7
1 4 7
2 11 9
6 16 9
8 5 5
7 -3 2
4 7 1
3 16 3
4 12 7
6 7 11
8 15 16
12 19 18
17 11 19
20 3 16
18 10 11
16 18 6
11 14 5
4 10 3
-2 17 2
-3 19 1
3 12 2
8 8 6
8 19 9
8 24 12
6 8 13
4 -9 16
7 -6 17
11 3 17
15 2 14
14 -4 11
6 -5 8
-2 -10 8
-10 -24 7
-12 -27 8
-7 -11 9
5 8 13
18 11 21
20 8 26
18 15 26
14 20 21
15 15 13
16 11 9
17 22 8
14 28 9
9 16 8
3 0 4
0 6 4
1 13 5
7 9 7
12 4 8
15 16 4
21 29 3
21 22 5
16 5 10
9 -3 14
6 -8 17
10 -21 18
18 -23 20
24 -10 22
24 -1 21
19 -12 17
10 -18 15
7 -2 18
12 14 22
23 14 26
26 6 22
23 7 13
18 7 6
16 -1 4
15 -5 7
16 7 12
11 13 14
5 3 15
1 -4 16
0 4 15
9 14 14
12 3 10
10 -6 5
2 -1 0
-3 6 0
-3 2 3
-3 -6 4
-3 -2 0
-3 4 -2
-2 -3 0
0 -5 7
3 8 16
5 17 21
5 9 19
-3 -2 12
-5 5 6
-2 16 5
7 16 9
17 15 13
22 22 13
23 22 10
19 6 8
11 -6 7
6 2 7
4 12 0
5 6 -10
5 -1 -19
2 4 -23
-2 9 -23
-4 0 -21
-3 -5 -19
2 4 -16
6 14 -10
7 10 -3
6 3 0
-1 5 -1
-5 7 -5
-8 -3 -5
-11 -9 -2
-10 1 1
-6 11 4
1 5 5
3 0 7
2 6 8
1 8 8
0 -5 6
-2 -13 6
-8 -5 6
-13 7 8
-10 4 8
-4 -1 4
2 3 -2
4 8 -6
-1 -1 -4
-9 -6 1
-11 2 4
-6 11 3
4 8 4
8 3 4
11 12 6
12 18 7
13 12 8
12 6 8
10 14 10
8 22 14
6 14 15
4 7 15
2 12 10
3 19 7
4 12 7
6 6 9
7 11 9
12 18 7
18 12 5
20 9 5
19 17 7
16 23 11
12 10 14
6 -7 14
2 -7 9
-1 -4 2
-2 -10 -4
-4 -13 -6
-7 -3 -2
-5 6 2
0 3 5
1 -2 5
4 8 5
3 15 4
3 6 4
6 -2 5
6 6 1
6 17 0
0 13 1
-6 5 6
-5 11 10
1 16 11
8 10 8
8 3 4
3 6 -1
1 8 -5
-1 -1 -6
0 -6 -4
-3 4 -1
-1 16 3
2 9 3
4 0 0
11 8 -2
19 19 0
26 18 8
30 19 17
28 26 19
24 31 16
22 19 9
19 7 3
18 11 0
16 18 0
11 12 0
-3 1 -4
-11 4 -8
-14 6 -12
-11 -4 -15
-5 -9 -13
1 2 -9
5 13 -5
3 4 -4
-1 -9 -9
-5 -5 -13
-5 2 -15
-2 -2 -12
-4 -8 -6
-7 -1 -4
-11 6 -4
-14 -3 -9
-13 -8 -11
-4 1 -10
3 9 -10
5 2 -9
1 -9 -10
-8 -4 -11
-14 4 -9
-13 1 -6
-8 -1 -4
-3 8 -4
0 16 -3
1 7 -2
0 -2 2
-3 5 4
-3 9 0
-4 -2 -5
-7 -16 -11
-12 -13 -16
-13 -3 -15
-8 -3 -9
-3 -5 -3
2 5 -1
6 9 -5
3 -4 -12
-4 -18 -15
-14 -16 -16
-22 -8 -13
-21 -9 -10
-19 -13 -8
-16 -6 -8
-14 0 -9
-15 -7 -9
-13 -10 -9
-7 1 -8
0 8 -7
-2 -6 -9
-14 -20 -13
-30 -16 -16
-40 -8 -19
-41 -15 -20
-37 -25 -23
-36 -23 -26
-37 -17 -26
-41 -26 -24
-41 -31 -19
-35 -21 -15
-28 -14 -18
-24 -24 -24
-25 -33 -28
-29 -26 -28
-28 -20 -26
-26 -29 -23
-27 -43 -26
-30 -42 -32
-30 -34 -36
-29 -33 -35
-27 -34 -29
-24 -21 -21
-23 -14 -17
-24 -25 -18
-24 -35 -22
-26 -28 -26
-26 -19 -28
-27 -25 -28
-28 -31 -24
-28 -25 -23
-24 -19 -27
-23 -29 -31
-25 -38 -35
-29 -35 -36
-33 -26 -33
-30 -27 -30
-23 -27 -27
-14 -16 -24
-12 -8 -22
-17 -19 -22
-28 -31 -23
-33 -27 -24
-28 -20 -27
-22 -25 -27
-19 -29 -24
-23 -21 -22
-26 -11 -19
-23 -13 -14
-15 -20 -12
-5 -14 -11
1 -6 -12
-1 -13 -14
-6 -19 -14
-8 -9 -12
-7 0 -12
-8 -14 -16
-14 -29 -23
-20 -26 -29
-20 -13 -29
-12 -8 -22
-7 -12 -13
-9 -9 -8
-16 -11 -7
-24 -27 -12
-24 -37 -18
-18 -24 -21
-8 -8 -20
-5 -10 -15
-7 -16 -9
-14 -12 -8
-17 -6 -10
-16 -13 -13
-17 -17 -11
-20 -8 -5
-23 3 3
-24 -3 6
-23 -11 5
-19 -7 -1
-19 -4 -6
-22 -16 -7
-25 -28 -7
-22 -19 -8
-8 -4 -8
5 -2 -6
6 -9 -7
-3 -6 -7
-14 -6 -8
-17 -16 -9
-14 -25 -7
-9 -16 -3
-4 -5 2
-7 -13 4
-13 -25 0
-18 -19 -8
-18 -8 -13
-14 -9 -13
-12 -15 -9
-11 -16 -9
-10 -17 -9
-9 -31 -11
-9 -40 -10
-8 -28 -4
-5 -12 0
-3 -15 1
0 -18 -2
2 -8 -4
1 2 -3
-5 -6 -4
-11 -17 -6
-14 -12 -10
-9 0 -11
0 1 -8
3 -3 -4
4 5 -2
0 10 -2
-5 1 -3
-12 -8 -5
-16 -4 -8
-15 3 -11
-12 -7 -13
-12 -19 -16
-11 -12 -15
-9 1 -12
-4 -2 -9
-1 -7 -7
1 2 -6
0 11 -9
-3 3 -13
-5 -8 -17
-11 -7 -20
-11 -2 -20
-11 -7 -16
-15 -15 -13
-16 -3 -9
-13 12 -5
-6 10 -2
2 3 0
6 10 -1
8 15 -4
7 3 -8
3 -14 -11
1 -14 -9
1 -9 -4
0 -17 0
-1 -21 0
2 -9 -2
5 6 0
4 2 4
-3 -9 8
-8 -3 7
-8 6 4
-7 3 2
-7 -4 4
-7 4 7
-4 14 8
2 8 5
3 -1 -1
2 5 -5
-3 10 -6
-7 1 -3
-11 -11 1
-11 -6 3
-9 2 2
-9 -1 0
-5 -4 -1
-1 9 1
