1 -11 -7
9 -14 -5
6 -11 -4
-7 -3 -6
-23 -9 -10
-32 -20 -14
-27 -17 -18
-18 -7 -20
-16 -10 -21
-20 -27 -23
-30 -30 -23
-40 -24 -24
-43 -26 -24
-40 -31 -24
-35 -22 -22
-30 -6 -19
-27 -5 -17
-26 -18 -17
-20 -19 -19
-15 -12 -20
-13 -15 -19
-11 -21 -17
-7 -11 -13
0 12 -6
0 14 -3
-5 -3 -3
-14 -12 -5
-22 -8 -11
-23 -10 -15
-16 -15 -17
-4 -7 -16
2 7 -13
0 6 -9
-5 -4 -4
-9 -3 -1
-11 7 -1
-12 4 1
-14 -10 1
-14 -11 2
-16 -8 -2
-15 -14 -7
-11 -22 -9
-2 -9 -6
4 10 -2
4 7 1
6 -12 2
6 -22 -1
4 -20 -2
-3 -23 1
-9 -30 4
-9 -23 5
-2 -8 5
4 -12 3
10 -22 0
10 -21 -4
6 -9 -5
-4 -9 -5
-12 -19 -7
-15 -17 -8
-11 -3 -8
-2 0 -5
6 -7 -3
7 -6 -3
4 3 -4
-3 2 -5
-6 -6 -5
-2 0 -3
-4 8 2
-6 1 4
-6 -12 3
-3 -10 -1
0 4 -5
1 7 -7
4 2 -4
10 10 5
15 23 11
15 19 15
7 -1 10
0 -5 2
-1 5 -2
3 10 -1
7 3 2
8 3 2
2 4 -4
-2 -4 -11
-4 -17 -13
-6 -12 -11
-8 2 -6
-13 2 -4
-14 -8 -8
-14 -10 -15
-12 0 -19
-11 -4 -21
-13 -16 -21
-14 -18 -22
-15 -8 -23
-21 -13 -25
-26 -26 -28
-29 -29 -32
-30 -19 -34
-29 -20 -33
-27 -27 -29
-25 -23 -25
-27 -10 -22
-26 -11 -20
-27 -21 -21
-24 -17 -18
-20 -5 -18
-19 -10 -21
-16 -25 -25
-10 -23 -27
-6 -8 -24
-3 -4 -19
-4 -15 -14
-7 -18 -13
-17 -18 -15
-27 -27 -16
-29 -38 -18
-20 -30 -17
-7 -11 -15
2 -5 -11
5 -12 -7
2 -9 -6
-5 -1 -7
-11 -5 -9
-14 -18 -9
-18 -17 -10
-20 -6 -11
-17 -7 -12
-7 -17 -13
7 -16 -12
15 -6 -9
13 -4 -2
6 -11 3
-1 -5 7
-6 9 6
-8 9 3
-7 -1 -1
-6 -2 -6
-6 5 -9
-6 1 -10
-6 -7 -7
-4 -1 -3
-2 16 3
-3 16 7
-2 5 8
-1 4 6
-3 14 1
-7 9 -4
-11 -6 -8
-14 -7 -9
-17 0 -9
-16 0 -5
-11 -10 -1
-4 -9 0
0 2 0
-1 1 0
-1 -7 2
3 -1 2
5 9 -1
5 9 -4
6 -1 -6
7 1 -5
7 11 -1
4 6 -1
1 -7 -3
-1 -4 -3
0 8 -3
1 6 -1
-1 -10 -2
-3 -10 -4
-5 4 -5
-4 12 -1
2 12 7
7 18 14
7 29 16
4 27 13
2 17 10
2 19 8
2 25 8
0 16 5
-1 -1 2
-2 -3 -3
-5 2 -9
-11 -4 -14
-15 -18 -16
-13 -18 -16
-10 -7 -13
-11 -8 -10
-16 -19 -10
-24 -18 -11
-28 -6 -12
-24 -4 -11
-18 -10 -10
-9 -7 -10
-9 3 -13
-15 0 -17
-21 -10 -19
-23 -7 -18
-21 4 -16
-16 4 -11
-10 -8 -9
-3 -5 -6
-1 9 -3
-1 11 -1
-4 1 0
-3 3 2
0 15 3
1 14 5
4 4 5
3 7 7
5 22 12
9 28 18
15 22 22
19 21 21
18 27 19
10 21 16
4 12 17
3 15 19
6 28 19
14 29 18
23 20 18
28 23 19
27 33 22
20 28 26
15 14 26
15 13 25
18 23 23
17 19 18
12 6 14
7 8 13
3 18 12
2 19 16
8 12 21
17 15 24
25 29 28
27 28 27
23 16 26
19 15 21
14 25 16
14 24 12
16 9 9
17 5 9
12 10 11
7 9 14
8 6 18
18 14 19
28 28 20
31 28 23
29 18 25
23 20 25
15 32 22
11 33 19
10 23 18
14 28 22
18 41 29
18 38 30
19 21 24
20 16 14
17 22 7
14 23 8
14 18 15
15 25 20
15 35 21
18 32 20
22 18 19
25 15 17
27 23 16
24 21 15
23 8 14
24 5 16
21 8 16
13 -1 12
6 -15 5
1 -14 1
0 -2 -2
4 2 -2
3 -9 -4
4 -6 -3
3 7 -1
5 10 0
9 0 0
15 0 -1
15 11 -2
14 15 0
15 8 4
15 10 7
9 14 7
-1 8 2
-3 -3 0
-4 -5 -5
0 6 -7
3 5 -8
3 -7 -8
3 -5 -5
-3 4 -5
-10 1 -7
-10 -10 -9
-7 -5 -7
-2 10 -2
1 10 3
-2 -7 3
-9 -14 -1
-16 -7 -7
-15 -4 -8
-8 -8 -4
1 -5 0
5 7 4
5 8 6
3 -2 5
3 2 6
4 15 6
4 15 7
5 4 8
3 1 8
1 11 8
0 12 6
4 4 3
10 4 2
10 11 0
7 7 0
-1 -7 -3
-7 -8 -6
-11 -1 -8
-15 -4 -10
-16 -17 -12
-14 -17 -14
-13 -6 -17
-10 -4 -18
-7 -16 -17
-9 -19 -15
-15 -13 -13
-18 -12 -12
-15 -19 -10
-6 -15 -8
1 -2 -3
0 -7 -1
-4 -24 -1
-10 -28 -5
-12 -15 -8
-9 -7 -7
0 -8 -1
4 -7 5
5 2 8
2 -3 5
-1 -15 -1
3 -13 -4
8 2 -4
13 4 -1
14 -7 2
8 -12 5
2 -2 6
0 2 8
2 -5 8
4 -5 5
-1 2 -1
-5 0 -4
-5 -12 -5
1 -8 -3
5 3 0
4 4 2
2 -9 3
0 -9 4
-1 0 4
-4 -1 2
-4 -11 0
-5 -10 -4
-1 6 -3
4 9 -1
6 0 0
5 -2 3
0 4 4
-1 3 9
2 -5 13
6 -2 15
9 11 16
11 12 15
13 1 15
16 -3 12
15 6 8
9 6 2
0 -7 -6
-5 -8 -10
-9 -2 -10
-10 -2 -7
-5 -9 -2
0 -3 3
2 11 6
0 11 9
-5 -3 9
-8 -7 8
-10 4 5
-11 7 3
-9 -3 1
-6 -6 -1
-2 0 -2
1 -3 -2
6 -9 2
8 -5 7
6 7 12
5 7 14
2 -6 11
1 -7 8
-5 -1 5
-7 -1 5
-6 -10 6
-1 -5 5
5 11 4
5 13 3
5 1 4
5 -6 4
5 -1 5
4 0 4
4 -7 4
2 -3 4
-1 10 5
-1 10 4
5 3 5
9 6 6
10 17 8
5 15 7
0 -1 4
-8 -8 -1
-13 -3 -8
-12 -5 -13
-5 -14 -16
1 -15 -16
0 -6 -13
-7 -9 -13
-14 -23 -16
-17 -25 -20
-22 -20 -24
-24 -20 -25
-21 -23 -21
-17 -16 -16
-10 -1 -13
-9 -4 -14
-15 -23 -17
-20 -29 -21
-23 -21 -20
-19 -18 -18
-16 -27 -19
-18 -30 -23
-25 -26 -28
-33 -30 -32
-34 -40 -33
-33 -42 -34
-34 -34 -34
-38 -36 -37
-46 -48 -42
-49 -48 -43
-50 -35 -44
-51 -32 -45
-47 -42 -48
-44 -44 -51
-43 -37 -54
-42 -37 -54
-43 -46 -51
-44 -44 -46
-44 -31 -40
-44 -26 -35
-40 -33 -32
-35 -31 -31
-31 -20 -29
-29 -18 -28
-28 -26 -24
-25 -25 -19
-20 -12 -14
-18 -13 -12
-15 -24 -13
-15 -24 -14
-17 -12 -15
-18 -9 -13
-13 -15 -7
-6 -12 -2
-3 1 0
-6 2 -1
-9 -8 -3
-15 -13 -6
-18 -5 -7
-17 -3 -6
-12 -7 -3
-5 -3 -1
0 7 1
0 2 0
-1 -15 -3
-2 -18 -5
-2 -6 -3
4 -1 2
14 -3 9
19 -1 13
14 7 13
3 0 10
-8 -23 6
-9 -34 6
-3 -25 7
11 -14 9
20 -13 8
20 -8 7
14 4 6
7 6 6
5 -2 6
7 -1 7
8 9 7
6 11 8
7 2 9
11 4 12
14 17 14
14 20 18
12 10 20
14 10 20
19 21 20
28 23 19
32 12 20
29 12 22
18 24 24
8 27 23
3 16 19
6 15 17
8 24 16
6 23 12
5 10 5
4 8 -3
3 19 -7
5 24 -5
10 17 2
11 16 9
5 20 12
-2 16 12
-5 5 11
-2 7 10
4 18 8
5 15 6
3 1 6
-1 0 7
-5 12 9
-3 16 12
5 8 14
7 2 13
5 6 9
-2 0 4
-5 -11 1
-4 -9 4
-2 7 8
-1 13 13
1 5 15
5 5 15
9 10 13
13 6 13
19 -5 15
16 -5 16
6 5 14
-4 6 11
-11 -7 4
-9 -8 1
-4 4 3
2 10 8
7 3 12
7 1 11
2 7 7
1 4 1
2 -6 -2
2 -6 -5
0 4 -6
-1 7 -6
-1 -1 -4
3 0 0
4 11 5
5 10 7
5 -4 5
3 -12 0
-1 -7 -5
-6 -5 -6
-3 -9 -2
2 -5 2
8 8 5
10 6 3
10 -8 -2
6 -13 -8
0 -5 -9
-2 -2 -8
3 -8 -5
10 -6 -3
14 3 -2
11 0 -2
-1 -14 -3
-9 -13 -3
-13 0 -2
-7 6 1
1 -3 4
6 -6 7
5 1 9
4 5 8
8 0 6
13 3 6
12 13 7
9 15 9
8 8 12
12 11 14
18 25 16
20 26 15
18 15 13
13 9 9
8 15 7
4 14 4
3 5 4
2 4 6
-1 14 10
1 19 15
6 11 17
12 8 15
10 13 9
3 8 3
0 -3 -1
0 -3 -2
5 9 0
5 9 1
4 -1 2
3 -2 4
5 10 5
9 14 5
11 6 4
8 0 0
1 5 0
-5 5 -1
-6 -5 0
-6 -8 1
-7 0 2
-4 2 4
1 -6 3
7 -7 1
9 1 0
3 0 -2
0 -8 -1
-4 -10 0
-8 -5 0
-10 -9 -1
-9 -22 -4
-4 -20 -3
2 -3 2
9 7 7
11 1 10
8 -2 10
1 3 6
-2 6 1
-2 -3 -1
1 -4 -3
0 3 -4
2 6 -3
6 0 -2
14 1 -1
20 11 1
18 9 0
13 -5 0
2 -13 -1
-1 0 1
2 10 3
11 10 5
14 8 6
9 6 6
-3 -12 2
-11 -37 -3
-14 -45 -7
-15 -30 -7
-18 -17 -7
-15 -14 -6
-14 -9 -8
-13 3 -13
-11 7 -17
-11 -1 -20
-10 2 -20
-8 19 -14
-7 24 -9
-8 13 -9
-12 7 -12
-18 10 -19
-20 15 -20
-16 12 -16
-9 14 -10
-9 20 -7
-7 18 -8
-9 4 -12
-9 2 -14
-7 15 -12
-5 21 -10
-2 13 -9
3 12 -9
5 20 -8
6 24 -6
8 18 -1
7 17 -1
5 25 0
3 25 -2
5 12 -4
8 11 -5
10 25 -2
10 31 1
10 22 5
10 17 7
12 23 8
16 24 11
22 18 14
19 14 14
12 22 13
7 20 11
5 10 10
7 7 11
6 14 13
7 16 16
10 8 16
16 9 16
21 23 14
20 26 12
13 14 9
6 6 7
-2 8 6
0 8 5
6 1 5
13 6 6
15 19 7
13 22 6
13 9 3
9 2 0
8 8 1
8 11 4
8 0 4
8 -6 1
7 -2 -5
2 -1 -10
-2 -11 -10
-7 -15 -8
-14 -7 -5
-17 -4 -8
-14 -13 -11
-11 -15 -13
-14 -7 -13
-16 -4 -9
-15 -11 -5
-12 -11 -3
-9 -3 -5
-7 -6 -10
-7 -21 -15
-10 -27 -17
-13 -17 -16
-15 -12 -13
-14 -21 -11
-12 -24 -11
-12 -14 -10
-11 -9 -7
-6 -16 -1
-10 -21 0
-14 -12 -2
-16 -8 -9
-17 -14 -14
-16 -16 -14
-20 -13 -15
-26 -21 -18
-30 -39 -24
-31 -46 -29
-34 -38 -30
-34 -32 -28
-33 -40 -28
-33 -43 -30
-32 -36 -30
-31 -32 -26
-34 -40 -22
-37 -40 -19
-35 -29 -19
-26 -19 -19
-14 -23 -18
-9 -25 -17
-15 -18 -17
-26 -19 -20
-28 -26 -22
-22 -24 -21
-11 -8 -15
-7 -2 -12
-8 -11 -12
-14 -15 -15
-19 -7 -17
-17 -3 -13
-12 -14 -11
-10 -19 -10
-11 -8 -9
-12 -2 -11
-10 -8 -11
-8 -10 -9
-6 3 -5
-4 12 2
-1 5 5
1 -1 5
0 0 -1
-6 -5 -9
-6 -15 -11
-2 -9 -5
4 10 4
11 20 9
18 14 10
23 13 10
24 23 12
26 27 16
26 15 19
24 11 22
19 18 24
12 17 22
8 4 20
2 -5 16
-5 -1 12
-5 3 11
3 -1 15
10 0 19
16 13 24
14 16 27
14 8 26
16 7 25
16 17 22
17 20 18
19 11 17
19 9 16
13 19 15
11 24 16
12 17 17
14 14 19
16 25 22
16 30 24
13 19 24
11 13 24
13 19 25
19 21 25
25 16 25
24 12 19
18 15 12
15 13 6
18 -2 1
16 -10 -2
9 -5 -3
-1 -3 -4
-3 -13 -3
-1 -18 -1
3 -12 1
0 -13 -1
-6 -20 -4
-8 -17 -6
-9 -1 -8
-6 4 -10
-3 -7 -12
-3 -16 -14
-6 -9 -13
-4 -2 -9
1 -5 -3
5 -3 2
4 7 6
2 11 6
0 2 5
0 -1 5
0 6 3
0 7 -1
2 -3 -3
2 -6 -2
2 1 -1
2 2 -2
6 -6 -8
9 -6 -17
12 8 -22
13 12 -25
14 2 -24
10 -5 -24
9 0 -26
11 5 -25
15 -1 -21
15 -7 -18
8 -2 -16
-3 -4 -18
-10 -13 -19
-9 -15 -18
-4 -1 -13
-1 6 -7
3 0 -2
2 -3 1
4 6 2
9 12 4
11 6 5
14 4 7
14 12 10
14 17 13
18 11 14
21 9 14
18 15 11
13 18 9
9 9 9
11 10 12
14 23 15
18 31 17
22 26 18
21 21 17
20 25 19
18 21 20
16 8 20
10 2 18
4 12 16
6 19 14
16 12 14
28 7 16
28 11 16
21 12 17
7 -1 14
-7 -9 6
-16 -6 -2
-19 -5 -7
-14 -11 -6
-8 -10 0
-3 1 5
3 6 7
3 -6 7
-1 -13 9
-4 -4 12
-4 2 16
3 -3 16
9 -6 15
9 1 15
2 4 13
-4 -4 10
-10 -6 4
-9 6 2
-3 15 5
5 8 13
11 0 19
11 3 19
7 2 14
3 -9 8
0 -13 7
-3 -8 5
-1 -7 4
3 -17 -2
3 -20 -5
-2 -8 -6
-5 1 -3
-9 -6 0
-9 -13 0
-7 -7 -3
-3 -1 -7
5 -2 -7
15 5 -1
18 17 6
17 17 9
12 1 5
3 -11 -2
-2 -3 -7
-2 6 -5
2 5 3
4 2 9
4 10 13
2 13 12
1 3 9
-2 -5 6
-8 -2 1
-13 -1 -3
-12 -9 -6
-8 -11 -5
-4 0 -3
-4 3 -2
-8 -10 -3
-13 -20 -6
-16 -15 -10
-11 -8 -10
-1 -8 -6
6 -7 -1
6 4 2
-1 4 0
-6 -7 -4
-10 -15 -9
-13 -7 -8
-11 0 -4
-9 -8 -3
-4 -10 -2
-2 2 0
1 11 3
3 6 7
2 1 9
-3 5 6
-8 4 0
-11 -9 -5
-11 -14 -7
-6 -3 -5
2 6 -2
8 0 1
7 -8 2
4 -4 2
5 -2 2
14 -8 1
18 -10 2
17 0 4
8 3 4
-4 -12 -1
-16 -26 -8
-21 -24 -13
-17 -17 -13
-8 -20 -8
0 -20 -5
1 -12 -6
-5 -10 -13
-13 -22 -20
-16 -26 -21
-15 -12 -15
-5 1 -7
0 -3 -2
-2 -7 -2
-10 -3 -6
-17 -3 -13
-16 -13 -17
-7 -16 -17
2 -2 -15
6 6 -13
2 -5 -14
-12 -18 -17
-20 -13 -17
-17 -3 -13
-4 -2 -6
5 1 2
8 10 8
4 10 9
0 -1 10
0 -8 11
-1 -3 10
-3 -2 6
-7 -14 -1
-11 -19 -9
-14 -9 -12
-11 -1 -11
-7 -8 -7
-4 -13 -4
-4 -10 -7
-6 -8 -12
-7 -18 -16
-10 -24 -15
-12 -14 -11
-11 -5 -7
-7 -10 -5
-4 -14 -5
-2 -4 -5
0 5 -4
4 0 -5
5 -9 -6
5 -7 -7
5 -6 -5
5 -11 0
1 -14 4
-2 -4 5
-4 2 4
-3 -7 0
2 -10 2
7 1 6
13 11 10
17 7 13
14 2 13
11 9 13
8 11 10
4 0 7
1 -5 7
0 4 9
2 13 11
9 11 13
16 10 13
20 21 14
24 26 16
27 17 18
23 6 17
12 12 14
4 19 10
-1 11 9
1 6 10
3 11 10
7 17 10
12 13 11
16 11 14
18 16 14
15 13 10
7 -4 2
-3 -15 -6
-9 -8 -10
-10 -5 -11
-8 -16 -13
-11 -23 -16
-16 -15 -17
-18 -8 -16
-18 -20 -15
-20 -36 -14
-22 -39 -15
-21 -37 -16
-18 -44 -16
-17 -46 -13
-17 -36 -11
-18 -30 -11
-16 -35 -14
-11 -31 -13
-7 -14 -11
-3 -1 -9
2 -8 -8
5 -18 -11
4 -19 -18
-7 -24 -27
-20 -37 -31
-34 -45 -32
-40 -38 -32
-40 -34 -33
-37 -40 -35
-34 -44 -36
-34 -33 -35
-34 -28 -36
-33 -31 -34
-31 -33 -30
-28 -20 -26
-24 -12 -22
-21 -19 -19
-20 -22 -18
-23 -11 -17
-18 1 -14
-12 -2 -11
-8 -6 -6
-6 1 -3
-6 9 0
-5 2 0
-4 -2 -2
-1 6 -4
3 13 -7
7 7 -6
9 0 -3
8 6 -1
9 14 1
11 14 3
16 18 6
19 30 8
20 33 9
15 19 7
10 9 8
7 17 9
8 25 13
12 22 18
15 20 22
18 29 24
20 36 23
25 30 23
26 24 22
24 30 22
17 27 21
13 11 19
9 1 17
8 12 17
14 25 20
18 23 22
17 16 22
12 20 21
9 24 21
11 17 22
15 12 26
18 20 28
16 23 23
12 13 18
6 4 15
2 7 15
1 10 19
2 2 22
0 -4 21
0 4 17
4 10 10
8 2 4
10 -3 2
9 7 5
10 18 11
13 12 14
16 9 16
16 16 13
15 22 8
14 13 6
9 3 4
8 10 6
9 17 8
11 10 9
14 8 11
17 20 12
19 31 12
18 23 12
16 12 9
10 11 4
2 9 -2
-6 -7 -9
-16 -22 -14
-25 -24 -21
-30 -26 -29
-32 -40 -37
-32 -45 -40
-30 -32 -39
-31 -25 -39
-32 -38 -40
-37 -51 -43
-41 -51 -47
-39 -47 -48
-32 -51 -44
-26 -51 -39
-22 -33 -31
-19 -22 -28
-15 -24 -27
-14 -28 -26
-12 -16 -24
-6 -1 -18
1 -2 -12
2 -9 -7
-5 -6 -7
-15 -7 -11
-21 -14 -12
-23 -15 -10
-18 -2 -6
-10 9 -1
-8 2 -1
-8 -6 -3
-8 -1 -4
-6 4 -5
2 1 -1
4 -4 3
1 2 2
-4 6 -1
-7 -2 -2
-5 -5 2
2 11 9
13 27 15
18 24 16
20 16 14
